0,1,2,3,4,5,6,7,8,9,10,11,12,13,14,15,16,17,18,19,20,21,22,23,24,25,26,27,28,29,30,31,32,33,34,35,36,37,38,39,40,41,42,43,44,45,46,47,48,49
-414341400000000.0,4.5652e-41,-421048000000000.0,4.5652e-41,-421054430000000.0,4.5652e-41,-421054430000000.0,4.5652e-41,-421048000000000.0,4.5652e-41,-421108120000000.0,4.5652e-41,-421110270000000.0,4.5652e-41,-414343550000000.0,4.5652e-41,-460896700000000.0,4.5652e-41,-458476500000000.0,4.5652e-41,-400152980000000.0,4.5652e-41,-408738600000000.0,4.5652e-41,-460735640000000.0,4.5652e-41,-457993300000000.0,4.5652e-41,-464513060000000.0,4.5652e-41,-464513060000000.0,4.5652e-41,-408738600000000.0,4.5652e-41,-409672770000000.0,4.5652e-41,-460774300000000.0,4.5652e-41,-454892330000000.0,4.5652e-41,-421110270000000.0,4.5652e-41,-414350000000000.0,4.5652e-41,-421045840000000.0,4.5652e-41,-414343550000000.0,4.5652e-41,-421110270000000.0,4.5652e-41
-0.378396,-0.37976074,-0.3782957,-0.37694082,-0.3779847,-0.3793742,-0.38096228,-0.38233855,-0.3828317,-0.38250226,-0.38242006,-0.38246974,-0.38236284,-0.38208777,-0.3815887,-0.3810609,-0.38111183,-0.38145852,-0.38175273,-0.38222927,-0.3825277,-0.38169742,-0.382428,-0.38246322,-0.3825217,-0.3826794,-0.38279966,-0.38253814,-0.38225132,-0.3821034,-0.38204753,-0.38220623,-0.38243347,-0.38275784,-0.38339996,-0.38404807,-0.3842304,-0.38407344,-0.3834319,-0.38248548,-0.38191783,-0.38168946,-0.38199946,-0.38259277,-0.38351232,-0.38464916,-0.38556907,-0.38576424,-0.38535523,-0.38432765
-0.3780223,-0.37745053,-0.37435418,-0.37412873,-0.37589276,-0.3789705,-0.38147852,-0.38110447,-0.3803458,-0.38010484,-0.3804053,-0.38060033,-0.38094294,-0.38139117,-0.3815323,-0.38129264,-0.38164926,-0.38215512,-0.38253614,-0.38301474,-0.38239196,-0.38268554,-0.38215622,-0.38200763,-0.3819586,-0.38236514,-0.38284445,-0.38288456,-0.38273066,-0.3825634,-0.38243568,-0.38272464,-0.38282812,-0.38324296,-0.38391882,-0.38453817,-0.38460422,-0.38439292,-0.38381013,-0.38286763,-0.38216552,-0.38173878,-0.38169235,-0.38203394,-0.38250175,-0.38277525,-0.38320574,-0.38363168,-0.383609,-0.38270494
-0.3786341,-0.37891084,-0.37644392,-0.37669462,-0.37847733,-0.38006416,-0.38137823,-0.38218454,-0.38249767,-0.3824259,-0.38229954,-0.38234836,-0.3825713,-0.38283682,-0.3830016,-0.38308057,-0.38345975,-0.3838295,-0.38412362,-0.3835755,-0.38409024,-0.38356644,-0.38314074,-0.38294128,-0.38281518,-0.38308227,-0.38346392,-0.3834725,-0.38331154,-0.3831346,-0.3830039,-0.38319737,-0.38359684,-0.38412833,-0.38482904,-0.3854996,-0.3857283,-0.38572484,-0.38544077,-0.38484254,-0.38430065,-0.38379517,-0.38339892,-0.38305545,-0.38311565,-0.3832547,-0.38342655,-0.3834504,-0.38310784,-0.38208863
-0.3772084,-0.37768245,-0.3769831,-0.37814915,-0.37996495,-0.38069957,-0.38124347,-0.3816567,-0.38198447,-0.38218915,-0.38254422,-0.38278484,-0.38316137,-0.38359645,-0.3839391,-0.3840878,-0.38438702,-0.38479245,-0.38426775,-0.38497823,-0.38467306,-0.3841396,-0.38372415,-0.3835361,-0.38346112,-0.3837074,-0.384093,-0.38414717,-0.38396907,-0.38383946,-0.38378108,-0.3838373,-0.3838849,-0.38420683,-0.38461477,-0.3850557,-0.38512576,-0.385041,-0.38466758,-0.38402334,-0.3834591,-0.38311887,-0.38328004,-0.38346142,-0.38339067,-0.3832633,-0.3829906,-0.3825248,-0.38192523,-0.38093334
-0.37994552,-0.38094467,-0.38035262,-0.38063458,-0.38165486,-0.38164514,-0.381748,-0.38170266,-0.38178447,-0.38189,-0.38205376,-0.38212362,-0.38254505,-0.38324073,-0.38399744,-0.3842651,-0.38452378,-0.3838607,-0.3848572,-0.3849671,-0.384901,-0.38462168,-0.38440078,-0.38423097,-0.38415885,-0.38398448,-0.38370174,-0.38307434,-0.38255233,-0.38258126,-0.3828819,-0.3831495,-0.38374132,-0.38448006,-0.3852976,-0.3859998,-0.38619593,-0.38599968,-0.38549083,-0.38468945,-0.38381642,-0.38302702,-0.38292894,-0.38303265,-0.38329154,-0.38342336,-0.38287956,-0.38223934,-0.3822515,-0.38155943
-0.38061547,-0.3816754,-0.38137448,-0.38140613,-0.38207364,-0.38242102,-0.38266224,-0.38258883,-0.3826592,-0.38271493,-0.38291556,-0.38325834,-0.38376287,-0.38421786,-0.38453573,-0.3848315,-0.38413066,-0.3851441,-0.3851676,-0.38530487,-0.38522506,-0.38496196,-0.38477916,-0.38465542,-0.38458383,-0.3845138,-0.38446182,-0.38401264,-0.38362342,-0.3836251,-0.38359052,-0.38383105,-0.38426995,-0.38481957,-0.38552028,-0.38607574,-0.38613814,-0.3860282,-0.38569784,-0.38513854,-0.38447917,-0.38369793,-0.3835019,-0.3835432,-0.3836969,-0.38378108,-0.38378894,-0.38366696,-0.38337278,-0.38298517
-0.37973994,-0.3805688,-0.38042295,-0.38068524,-0.38134682,-0.3817439,-0.38216797,-0.38227528,-0.3823452,-0.38252294,-0.38282427,-0.3832226,-0.38373628,-0.38418847,-0.3845995,-0.3839531,-0.38493723,-0.38497972,-0.38501677,-0.38509127,-0.3849779,-0.38472304,-0.38456863,-0.38446158,-0.38438016,-0.38427386,-0.38421404,-0.38399172,-0.3838039,-0.38369617,-0.3837006,-0.38393217,-0.3843463,-0.38495207,-0.38554424,-0.38588172,-0.38594913,-0.38587284,-0.38561982,-0.38521275,-0.38468552,-0.38400418,-0.38365632,-0.38362646,-0.38370156,-0.38374794,-0.38372082,-0.38365757,-0.38370684,-0.38358253
-0.3802498,-0.38103858,-0.3810147,-0.38131726,-0.38183573,-0.38222754,-0.38267076,-0.3828085,-0.38289887,-0.38308394,-0.38337612,-0.38374066,-0.38420618,-0.3846801,-0.3840483,-0.38502407,-0.3850217,-0.38510096,-0.38512415,-0.38518244,-0.38505563,-0.38478345,-0.38461298,-0.38449553,-0.3844008,-0.38429382,-0.38425958,-0.3841353,-0.38397336,-0.383872,-0.38386294,-0.38406307,-0.38448864,-0.38487673,-0.38520518,-0.3854916,-0.38552934,-0.38546842,-0.3852663,-0.38492912,-0.38445848,-0.38383096,-0.38362664,-0.38357878,-0.38363567,-0.3836735,-0.3836596,-0.38348472,-0.3834772,-0.38341916
-0.38078433,-0.38186803,-0.38225034,-0.3824375,-0.38268644,-0.38302028,-0.38341066,-0.38352305,-0.38356555,-0.38365793,-0.38384852,-0.3841157,-0.38457114,-0.383964,-0.3849343,-0.38485035,-0.3848482,-0.38489872,-0.38494664,-0.38493013,-0.38481113,-0.38461262,-0.38442546,-0.38427383,-0.3841712,-0.38410854,-0.38414088,-0.38403255,-0.383884,-0.38376224,-0.38374794,-0.38402468,-0.38418067,-0.38443023,-0.3846752,-0.3848468,-0.38489425,-0.38485193,-0.38467526,-0.38435584,-0.3839146,-0.38341427,-0.38336453,-0.38336986,-0.38346976,-0.38351673,-0.3834265,-0.38308778,-0.3829965,-0.3827986
-0.38168305,-0.38278294,-0.38340348,-0.3834909,-0.38361615,-0.38375252,-0.38412088,-0.38421208,-0.3842214,-0.38426316,-0.38442972,-0.3847428,-0.3841554,-0.38519588,-0.38514307,-0.38507742,-0.38506466,-0.38512492,-0.38519555,-0.38516164,-0.3850335,-0.38481677,-0.3846893,-0.38454568,-0.38447052,-0.38447553,-0.3844998,-0.38433886,-0.38417304,-0.38407403,-0.38408452,-0.3842979,-0.38447815,-0.3847012,-0.38488412,-0.3850976,-0.3851587,-0.38513875,-0.38499448,-0.3847297,-0.384328,-0.38388494,-0.38387653,-0.3839016,-0.38399678,-0.3840321,-0.384011,-0.38380685,-0.38370818,-0.38357794
-0.3803351,-0.3812163,-0.38197285,-0.38224843,-0.38247153,-0.38261014,-0.38305992,-0.38323414,-0.38333237,-0.38348606,-0.38378575,-0.3831321,-0.38424104,-0.3843007,-0.38431305,-0.38426894,-0.38425356,-0.3842985,-0.38425857,-0.38422346,-0.38413614,-0.3839815,-0.38390052,-0.38380298,-0.38380307,-0.38376033,-0.3837371,-0.38358015,-0.38341743,-0.38332537,-0.38334075,-0.38351747,-0.38362944,-0.3838532,-0.3841046,-0.38434392,-0.38441426,-0.38439316,-0.3842654,-0.3840139,-0.3836272,-0.3832559,-0.3832566,-0.3832779,-0.3833712,-0.38341647,-0.38342506,-0.38335007,-0.38333857,-0.38330376
-0.3794564,-0.38030052,-0.3812547,-0.38161224,-0.38182575,-0.3819939,-0.3824705,-0.3826775,-0.38281745,-0.38308758,-0.38237613,-0.38338965,-0.38350177,-0.3835932,-0.38359407,-0.38355005,-0.38352072,-0.38354075,-0.38344598,-0.38341522,-0.38334817,-0.383236,-0.38325137,-0.38314873,-0.38324177,-0.38316736,-0.38314202,-0.38296902,-0.38278726,-0.3826704,-0.38264647,-0.38271153,-0.3827944,-0.38306755,-0.38332477,-0.38356867,-0.38363403,-0.3836137,-0.38347557,-0.38323003,-0.38285688,-0.38258588,-0.3825811,-0.38259864,-0.38270047,-0.38277054,-0.38278407,-0.38270235,-0.38266662,-0.38268328
-0.37777522,-0.37874228,-0.3798675,-0.38039505,-0.3806249,-0.38085407,-0.38132417,-0.381622,-0.38187793,-0.38116974,-0.38212866,-0.3821406,-0.38231632,-0.38241684,-0.3824352,-0.38240904,-0.38236302,-0.38235033,-0.38217813,-0.3821935,-0.38219607,-0.3821405,-0.3822164,-0.3821109,-0.38218176,-0.382111,-0.38209242,-0.3819147,-0.3816515,-0.3815037,-0.3814508,-0.38145095,-0.38155508,-0.38182205,-0.38206816,-0.38231087,-0.38239753,-0.38238287,-0.38224906,-0.38200483,-0.38162106,-0.38131955,-0.38130045,-0.38131738,-0.38144302,-0.38152495,-0.38155067,-0.38148862,-0.3815449,-0.3815812
-0.37744313,-0.3784945,-0.3797161,-0.38021272,-0.38043442,-0.38064378,-0.3810861,-0.38146144,-0.38071275,-0.38166654,-0.3816023,-0.38164884,-0.3818205,-0.38192979,-0.38195527,-0.38192403,-0.38186872,-0.38185048,-0.3816375,-0.3816376,-0.38167077,-0.38167763,-0.38173437,-0.38159359,-0.38168573,-0.38162586,-0.38161469,-0.38144606,-0.38121814,-0.3810573,-0.3809616,-0.380992,-0.38107502,-0.3813125,-0.3815292,-0.3817697,-0.3818612,-0.38186753,-0.38175726,-0.38152868,-0.38115102,-0.38087296,-0.38087884,-0.38093412,-0.38107207,-0.38115823,-0.38118568,-0.38113523,-0.38128006,-0.38130796
-0.38020664,-0.3811661,-0.38209346,-0.38226014,-0.38239455,-0.38256943,-0.38298732,-0.38229674,-0.38311014,-0.3829497,-0.3828935,-0.38289544,-0.3829978,-0.38304245,-0.3829895,-0.38287115,-0.3827883,-0.3827017,-0.3824967,-0.38250962,-0.38253075,-0.3824591,-0.38248363,-0.38235927,-0.3824601,-0.38251758,-0.3824839,-0.38229135,-0.38202435,-0.38182724,-0.3817541,-0.38178164,-0.38184506,-0.3820378,-0.38222933,-0.3824176,-0.38246787,-0.3824494,-0.3823277,-0.38209212,-0.38189188,-0.3818395,-0.38192904,-0.38205066,-0.38223737,-0.38233662,-0.3823428,-0.38224804,-0.38218164,-0.3820312
-0.38167533,-0.38254,-0.38327068,-0.38327622,-0.3833585,-0.3836024,-0.38297048,-0.3838272,-0.38364342,-0.38347298,-0.38338828,-0.38336986,-0.38344002,-0.3834501,-0.383354,-0.3831904,-0.38309586,-0.38291204,-0.38271374,-0.3827644,-0.3827736,-0.38263917,-0.38263726,-0.38250613,-0.38259223,-0.38267136,-0.38264197,-0.38237396,-0.38208655,-0.3819578,-0.3819153,-0.38195288,-0.3820125,-0.38219845,-0.3823687,-0.38254195,-0.38259202,-0.38258243,-0.3824687,-0.3822447,-0.38222137,-0.3821935,-0.3822778,-0.3823927,-0.3825755,-0.3826716,-0.3826872,-0.3826105,-0.38269594,-0.3823034
-0.37864095,-0.37938786,-0.3803449,-0.3806203,-0.38082877,-0.38012677,-0.38104066,-0.38105306,-0.38106608,-0.3811899,-0.38116354,-0.38126433,-0.38143358,-0.38148677,-0.3814338,-0.38132304,-0.38121232,-0.38098317,-0.3808454,-0.38094622,-0.3809557,-0.38088638,-0.38091063,-0.38076723,-0.38083708,-0.38086078,-0.3807847,-0.38045365,-0.38017714,-0.38002485,-0.37996742,-0.37999842,-0.38009578,-0.3803418,-0.38056993,-0.38080627,-0.3808955,-0.38089764,-0.38078114,-0.3805642,-0.38053152,-0.38046205,-0.38051182,-0.38059622,-0.3807668,-0.3808735,-0.3809095,-0.38098717,-0.38099748,-0.38062376
-0.37797877,-0.37869042,-0.37972948,-0.38016912,-0.37943268,-0.38028523,-0.38025755,-0.38032746,-0.3804103,-0.38059682,-0.38060886,-0.3806847,-0.38085407,-0.38093486,-0.38091734,-0.38085032,-0.38080436,-0.38078412,-0.38058734,-0.3805886,-0.3805799,-0.38051155,-0.38052282,-0.38036117,-0.38041806,-0.38042468,-0.38033828,-0.380077,-0.37983614,-0.37972084,-0.3796929,-0.3797595,-0.3798716,-0.38012895,-0.38036644,-0.38063005,-0.3807521,-0.38078523,-0.38071078,-0.38056213,-0.3803391,-0.38027522,-0.3803093,-0.38035887,-0.38048863,-0.38057387,-0.38075885,-0.38062352,-0.38055375,-0.38059467
-0.38112065,-0.38174108,-0.38251653,-0.38170087,-0.38245472,-0.38235036,-0.38230437,-0.38230342,-0.38227278,-0.3822289,-0.3821904,-0.38221595,-0.38231185,-0.3823344,-0.38226366,-0.38216662,-0.38219523,-0.38208318,-0.3818743,-0.38183796,-0.38175178,-0.38160023,-0.38155743,-0.38139123,-0.38142562,-0.38144165,-0.38138056,-0.381161,-0.38095424,-0.3808604,-0.38081902,-0.38087058,-0.38094002,-0.38112682,-0.38130483,-0.38151693,-0.38161427,-0.38165474,-0.3816238,-0.3815133,-0.38145208,-0.3814304,-0.38148034,-0.38152874,-0.38164294,-0.38183767,-0.38176996,-0.38152704,-0.38144377,-0.38120693
-0.38180348,-0.38234812,-0.3820095,-0.38267726,-0.38246316,-0.38240695,-0.38235095,-0.38231152,-0.3822666,-0.38231808,-0.3822864,-0.38229883,-0.3823618,-0.38234776,-0.3822657,-0.38220733,-0.38219494,-0.382033,-0.3818289,-0.38178974,-0.3816918,-0.38152096,-0.3814566,-0.38126227,-0.38124207,-0.3812489,-0.38115323,-0.3809104,-0.38069582,-0.38061386,-0.38059443,-0.38065958,-0.38074166,-0.3809378,-0.38112268,-0.38132453,-0.38140586,-0.38144207,-0.38144815,-0.38148817,-0.3815483,-0.38154525,-0.38160765,-0.38166857,-0.38192964,-0.3818736,-0.381653,-0.3813301,-0.38113904,-0.38087484
-0.3812073,-0.38079184,-0.38209695,-0.3818748,-0.38169086,-0.3816157,-0.3815621,-0.38149226,-0.38146695,-0.38152638,-0.38147846,-0.3815413,-0.38165215,-0.38168025,-0.38166767,-0.38161296,-0.38150284,-0.3812988,-0.38110805,-0.38108224,-0.38098827,-0.38078344,-0.38066807,-0.38036323,-0.38031173,-0.38026035,-0.38013852,-0.37986022,-0.37967405,-0.3796327,-0.3796768,-0.3797801,-0.37988865,-0.3801008,-0.38029242,-0.38064128,-0.38087147,-0.381005,-0.3810466,-0.38106087,-0.38108426,-0.3810452,-0.38107347,-0.38124615,-0.38125235,-0.38105148,-0.38077423,-0.38036454,-0.38023221,-0.37978417
-0.38082862,-0.38193524,-0.38220912,-0.38200033,-0.38179278,-0.38170245,-0.3816405,-0.3815102,-0.38146672,-0.38149992,-0.3814384,-0.38149178,-0.38161033,-0.38168567,-0.38172805,-0.3816301,-0.38146383,-0.3812731,-0.38109082,-0.3810535,-0.38091704,-0.38066927,-0.3804584,-0.38016897,-0.3800794,-0.38001072,-0.37985146,-0.37958488,-0.3793887,-0.37936974,-0.3794378,-0.3795568,-0.37966207,-0.37992674,-0.38026398,-0.38064122,-0.38087815,-0.38102198,-0.3810745,-0.38110167,-0.38113344,-0.3810941,-0.3812468,-0.381161,-0.38101837,-0.38077044,-0.38042635,-0.38012892,-0.3799701,-0.37952358
-0.38191256,-0.38200602,-0.38231426,-0.3821031,-0.38189918,-0.38180846,-0.38175133,-0.38162357,-0.3815863,-0.3816287,-0.38158953,-0.38167697,-0.3818593,-0.38191894,-0.38184962,-0.38174874,-0.38163373,-0.38144523,-0.3812551,-0.38120046,-0.38104075,-0.38074976,-0.380576,-0.3802779,-0.38018182,-0.3801049,-0.37995082,-0.37968755,-0.37948647,-0.37944174,-0.37951505,-0.37963808,-0.37974185,-0.37999576,-0.38033435,-0.38070908,-0.38095975,-0.3811227,-0.38119376,-0.38123968,-0.3812799,-0.38136923,-0.3812529,-0.38100195,-0.38079107,-0.38047597,-0.3802774,-0.37998646,-0.37988326,-0.37972063
-0.3814438,-0.38166326,-0.3820531,-0.3818876,-0.3816732,-0.38157123,-0.3815055,-0.38141823,-0.38138723,-0.3814261,-0.3813871,-0.3814922,-0.38164812,-0.3816697,-0.38167173,-0.38159657,-0.38140267,-0.38121495,-0.38102305,-0.38095194,-0.3807332,-0.38044614,-0.38021854,-0.37987366,-0.37974024,-0.37965748,-0.37952828,-0.37930107,-0.3791808,-0.37921602,-0.37932324,-0.37950408,-0.3797559,-0.3800509,-0.38034517,-0.3806868,-0.3809402,-0.38112158,-0.381216,-0.38128692,-0.38145977,-0.38127446,-0.3809855,-0.38066143,-0.3803692,-0.38015276,-0.37990576,-0.37962782,-0.3795748,-0.3794104
-0.38306123,-0.38301542,-0.38307047,-0.3827243,-0.382439,-0.3823092,-0.38223583,-0.38217622,-0.38203105,-0.38192654,-0.38182187,-0.38177267,-0.38175738,-0.38168997,-0.3816383,-0.38152677,-0.38137007,-0.38127676,-0.38109124,-0.38091302,-0.38055113,-0.3801005,-0.37982485,-0.37964588,-0.37958416,-0.37960553,-0.37968177,-0.37969607,-0.37980437,-0.3799711,-0.3801438,-0.38035834,-0.38051176,-0.38065976,-0.38081396,-0.38105255,-0.38128012,-0.38149267,-0.3816499,-0.38194138,-0.38193452,-0.38159853,-0.38122422,-0.3807619,-0.3804847,-0.38015807,-0.37981424,-0.37958652,-0.37952456,-0.37935466
