0,1,2,3,4,5,6,7,8,9,10,11,12,13,14,15,16,17,18,19,20,21,22,23,24,25,26,27,28,29,30,31,32,33,34,35,36,37,38,39,40,41,42,43,44,45,46,47,48,49
-713314600000000.0,4.5652e-41,-713314600000000.0,4.5652e-41,6.985181e-08,0.0,6.985181e-08,0.0,-414347840000000.0,4.5652e-41,-409924030000000.0,4.5652e-41,-460896700000000.0,4.5652e-41,-461163000000000.0,4.5652e-41,-400962580000000.0,4.5652e-41,-407074300000000.0,4.5652e-41,-460896700000000.0,4.5652e-41,-400215250000000.0,4.5652e-41,-407074300000000.0,4.5652e-41,-408738600000000.0,4.5652e-41,-460896700000000.0,4.5652e-41,-458476500000000.0,4.5652e-41,-400152980000000.0,4.5652e-41,-408738600000000.0,4.5652e-41,-460735640000000.0,4.5652e-41,-460896700000000.0,4.5652e-41,-460735640000000.0,4.5652e-41,-371299400000000.0,4.5652e-41,-400152980000000.0,4.5652e-41,-400215250000000.0,4.5652e-41,-461163000000000.0,4.5652e-41
-0.3656296,-0.3662582,-0.36800748,-0.3671732,-0.36704922,-0.36694717,-0.3668456,-0.3669515,-0.36706403,-0.367017,-0.36728135,-0.36733246,-0.36707038,-0.36675924,-0.36606213,-0.36531472,-0.36524123,-0.36574042,-0.36609602,-0.36675802,-0.36716324,-0.36599445,-0.36711487,-0.36720407,-0.36751086,-0.36777478,-0.36781615,-0.3677574,-0.367648,-0.3673545,-0.3670509,-0.3668208,-0.366826,-0.36697674,-0.36739218,-0.3676194,-0.3677842,-0.3679942,-0.36778337,-0.36739677,-0.36705434,-0.3662608,-0.36579967,-0.3657645,-0.3660524,-0.36671263,-0.3677944,-0.3677945,-0.36731154,-0.36635885
-0.37620568,-0.3767298,-0.37894118,-0.37786078,-0.3774351,-0.37820095,-0.3790751,-0.37898883,-0.37835133,-0.37790707,-0.37771228,-0.3774193,-0.37710986,-0.3769126,-0.37650567,-0.37633938,-0.37688398,-0.37792128,-0.37871218,-0.37954843,-0.3788848,-0.37911946,-0.37877527,-0.37847632,-0.37836656,-0.3784064,-0.37836474,-0.37838024,-0.37841323,-0.37823957,-0.37794498,-0.3776002,-0.37775454,-0.37808752,-0.37867317,-0.37907612,-0.37935877,-0.37970042,-0.3797952,-0.379703,-0.37939954,-0.3784827,-0.37757915,-0.37704834,-0.37673298,-0.37669387,-0.37764356,-0.37819237,-0.37839752,-0.37791726
-0.37627727,-0.3772189,-0.37996936,-0.37957805,-0.37923163,-0.37943766,-0.37975815,-0.38005286,-0.37989357,-0.37953663,-0.37972188,-0.37958002,-0.37953222,-0.37982425,-0.37995887,-0.3802818,-0.38117602,-0.38244078,-0.3832454,-0.38287598,-0.38364285,-0.38283008,-0.38236997,-0.3820016,-0.38199496,-0.38219184,-0.3824357,-0.38271374,-0.38295,-0.38293242,-0.38273868,-0.38241193,-0.3822231,-0.38211918,-0.38223207,-0.38241333,-0.38290888,-0.38349736,-0.38378316,-0.3837729,-0.38342708,-0.38238204,-0.3813225,-0.380549,-0.38024884,-0.38042468,-0.38139588,-0.3816511,-0.38149887,-0.38065094
-0.36969694,-0.37244576,-0.37514687,-0.37509918,-0.3747667,-0.3743381,-0.37366706,-0.3731598,-0.37244076,-0.37182015,-0.37173182,-0.37167498,-0.37180698,-0.37235767,-0.37264368,-0.37287942,-0.37314034,-0.3738197,-0.37285697,-0.37353945,-0.3727677,-0.37175196,-0.3712482,-0.37088162,-0.37102848,-0.37112266,-0.3713547,-0.3712502,-0.37109715,-0.37081224,-0.37048346,-0.37036896,-0.37050906,-0.37069723,-0.3712386,-0.37188575,-0.37260595,-0.3732183,-0.37329906,-0.37286997,-0.37214035,-0.37083244,-0.36994177,-0.36961338,-0.36964166,-0.37007153,-0.3709854,-0.37100756,-0.3707257,-0.36971033
-0.36529157,-0.3685692,-0.3702488,-0.36939943,-0.36862862,-0.36762747,-0.36637336,-0.36517882,-0.36383545,-0.36277205,-0.36246032,-0.36214072,-0.36199373,-0.36221707,-0.36219966,-0.36189395,-0.3615182,-0.36064342,-0.36077103,-0.36029348,-0.35948944,-0.35842323,-0.35803986,-0.35781854,-0.35818332,-0.3582592,-0.35843208,-0.35793677,-0.3574266,-0.35699832,-0.35656685,-0.3560899,-0.35597125,-0.35596654,-0.35629946,-0.3570033,-0.35772032,-0.35835624,-0.358553,-0.35844666,-0.35840392,-0.35769072,-0.35678113,-0.35639307,-0.3563239,-0.35635078,-0.35662228,-0.35637778,-0.35646677,-0.3558358
-0.3657465,-0.36790073,-0.36928284,-0.3688134,-0.36796722,-0.3672787,-0.3661713,-0.36504626,-0.36376694,-0.36274546,-0.3624651,-0.36220962,-0.36199647,-0.362005,-0.36168608,-0.36126092,-0.35976452,-0.36040434,-0.3595636,-0.35916638,-0.3584552,-0.35750043,-0.35722548,-0.35708886,-0.35746846,-0.35757387,-0.35782734,-0.35736573,-0.35691917,-0.35655427,-0.35604262,-0.35557663,-0.35543543,-0.35536346,-0.35557696,-0.35618967,-0.35685217,-0.35732257,-0.35748112,-0.35747513,-0.35762855,-0.35728502,-0.3566509,-0.35629225,-0.35607785,-0.35588273,-0.3560699,-0.35590303,-0.35589707,-0.35528713
-0.3653823,-0.36660662,-0.36764857,-0.36740327,-0.36697084,-0.36648935,-0.36563474,-0.36474952,-0.36358738,-0.36274928,-0.36263704,-0.36251193,-0.36234188,-0.36231816,-0.3620173,-0.36058152,-0.3606493,-0.3602959,-0.3594823,-0.35905308,-0.3583775,-0.35752583,-0.35736573,-0.3573142,-0.35770184,-0.3577752,-0.35799718,-0.35760504,-0.3572756,-0.3568973,-0.35639128,-0.35589516,-0.35573083,-0.35564792,-0.3558898,-0.35660177,-0.35716757,-0.3575374,-0.35762024,-0.3576278,-0.35781842,-0.357525,-0.3571285,-0.35672188,-0.35644412,-0.35619485,-0.35634097,-0.3561343,-0.35589212,-0.35512352
-0.3663507,-0.3673768,-0.3682158,-0.36804366,-0.36771634,-0.36717933,-0.36629027,-0.3654027,-0.36425585,-0.36344492,-0.3633373,-0.36319095,-0.36297998,-0.36295366,-0.36160788,-0.3617494,-0.3608744,-0.36059326,-0.35983184,-0.35944074,-0.3588131,-0.35800573,-0.35785782,-0.35779667,-0.35814598,-0.35818315,-0.35839617,-0.3580916,-0.35777855,-0.35741895,-0.35692692,-0.35642415,-0.35623145,-0.35622755,-0.35655677,-0.35719058,-0.35767922,-0.35801047,-0.35809034,-0.35814023,-0.35838386,-0.35819197,-0.35769305,-0.35730278,-0.3569982,-0.35669398,-0.35677153,-0.3565539,-0.35647166,-0.35573173
-0.36691263,-0.3683793,-0.36937526,-0.36922336,-0.36894643,-0.36823273,-0.3671818,-0.36619928,-0.36500296,-0.36412472,-0.36391038,-0.3636496,-0.36342284,-0.36235124,-0.36257452,-0.3617038,-0.36084414,-0.3605429,-0.3598199,-0.3595799,-0.3590111,-0.35812676,-0.35788915,-0.35775763,-0.35805833,-0.3581065,-0.35836774,-0.35809577,-0.35781723,-0.35746598,-0.35701746,-0.35657412,-0.35658956,-0.3565993,-0.35684842,-0.35733902,-0.35784066,-0.35819,-0.35829216,-0.3583669,-0.3586545,-0.35839206,-0.35783395,-0.35752213,-0.35725123,-0.3569165,-0.35687262,-0.35649818,-0.35649693,-0.3558996
-0.36784872,-0.36925432,-0.36991137,-0.36965847,-0.3694116,-0.3688012,-0.36772084,-0.36674702,-0.36556226,-0.3646739,-0.36442888,-0.36416256,-0.36286652,-0.36335507,-0.3625522,-0.3616609,-0.36074257,-0.36039293,-0.35966623,-0.35948762,-0.35896513,-0.3581037,-0.35782298,-0.35768712,-0.3579986,-0.35811502,-0.35837466,-0.3580472,-0.35772574,-0.35736376,-0.35691345,-0.35647294,-0.35647473,-0.35647783,-0.35666174,-0.35720706,-0.35769975,-0.35804167,-0.35816175,-0.35831472,-0.35867858,-0.3584902,-0.3580003,-0.35772246,-0.357433,-0.3570438,-0.35696578,-0.35662583,-0.35660106,-0.35595375
-0.36705047,-0.36815757,-0.36874443,-0.36863986,-0.3684427,-0.36800376,-0.36708677,-0.36626413,-0.36520725,-0.36443847,-0.3643367,-0.36315423,-0.36353984,-0.36312115,-0.36242923,-0.36158386,-0.36065936,-0.3602864,-0.35959974,-0.35938805,-0.35885078,-0.35802984,-0.35781723,-0.3577504,-0.35815537,-0.35823247,-0.3584515,-0.3581184,-0.35776746,-0.35736382,-0.3568642,-0.35646057,-0.35653052,-0.3565405,-0.3568326,-0.35742038,-0.3579304,-0.35827005,-0.35841122,-0.35854805,-0.3588831,-0.35860115,-0.35808957,-0.357807,-0.35755754,-0.3572454,-0.3572732,-0.35706216,-0.3571059,-0.35636923
-0.36639297,-0.3674904,-0.3681432,-0.36820465,-0.3680556,-0.36768556,-0.36683255,-0.366059,-0.36505032,-0.36438107,-0.36331338,-0.36379504,-0.36327922,-0.36296237,-0.36230904,-0.3614688,-0.36050367,-0.36008334,-0.35938445,-0.35912874,-0.35858446,-0.3578031,-0.35763353,-0.35773152,-0.3580673,-0.35813558,-0.3583536,-0.35800976,-0.3576755,-0.35731095,-0.356902,-0.35663503,-0.35670072,-0.35679752,-0.35711825,-0.3577154,-0.35821748,-0.35855764,-0.35865325,-0.35872972,-0.35899305,-0.35856375,-0.35803652,-0.35776964,-0.3575765,-0.3573482,-0.35742354,-0.3572302,-0.35724014,-0.35644802
-0.36465496,-0.36593568,-0.3669058,-0.36719656,-0.36713332,-0.36679763,-0.3660272,-0.36526364,-0.36433727,-0.3626817,-0.3632418,-0.36279148,-0.3623864,-0.36213154,-0.36153677,-0.36073905,-0.3597811,-0.35935813,-0.35869545,-0.35841227,-0.35785806,-0.35710323,-0.35701022,-0.35712624,-0.3574166,-0.35748523,-0.35769373,-0.35734838,-0.3570492,-0.35667166,-0.3562522,-0.3559218,-0.35602075,-0.3560874,-0.3563727,-0.35693884,-0.35745767,-0.35779637,-0.3578902,-0.35794646,-0.35816377,-0.35770267,-0.35714984,-0.3568802,-0.35672623,-0.35652822,-0.35663605,-0.35647887,-0.35650694,-0.35576242
-0.36406475,-0.36542106,-0.36646125,-0.3668436,-0.36679977,-0.36647403,-0.3657199,-0.36499757,-0.36302155,-0.36296093,-0.36251667,-0.36208838,-0.3616745,-0.36141708,-0.36082563,-0.36003518,-0.3590917,-0.35868555,-0.35809755,-0.35784414,-0.35732543,-0.35663667,-0.3564918,-0.35652906,-0.35680842,-0.3568771,-0.35707992,-0.3567134,-0.35635757,-0.35595924,-0.35549217,-0.35520908,-0.35527992,-0.3553064,-0.35555273,-0.35612428,-0.35664445,-0.3570053,-0.3571335,-0.35723212,-0.35748866,-0.35704386,-0.35652387,-0.35628355,-0.35611504,-0.35588187,-0.35595185,-0.35578448,-0.35591507,-0.35521397
-0.3666882,-0.36798054,-0.36870742,-0.3687423,-0.36851674,-0.3680254,-0.36716467,-0.3652635,-0.36480588,-0.3636589,-0.3631804,-0.36266798,-0.3621722,-0.36183944,-0.36116558,-0.360299,-0.35933506,-0.35898775,-0.35843837,-0.35825074,-0.35781246,-0.35707486,-0.35686734,-0.3568681,-0.35712177,-0.3570903,-0.3572651,-0.3568706,-0.35652068,-0.35608065,-0.3556888,-0.35545713,-0.35559165,-0.35568005,-0.35602948,-0.35667744,-0.3572578,-0.35765827,-0.35780454,-0.3579234,-0.35805988,-0.35750538,-0.3570819,-0.35691953,-0.3567831,-0.35653496,-0.35655665,-0.35631475,-0.35630238,-0.35587037
-0.36837476,-0.3696508,-0.37022543,-0.3700676,-0.36974877,-0.36918426,-0.36721286,-0.36692607,-0.3654034,-0.36427274,-0.3637731,-0.3632207,-0.3626675,-0.3622889,-0.36156255,-0.36064523,-0.3596614,-0.35937673,-0.35886404,-0.3587829,-0.3583858,-0.35763502,-0.35745114,-0.35745734,-0.35771385,-0.3576699,-0.35783836,-0.35748988,-0.3571177,-0.3567573,-0.35639358,-0.3561896,-0.3563433,-0.35646802,-0.3568132,-0.35744053,-0.35799414,-0.35837024,-0.35849267,-0.35861343,-0.35860902,-0.3581313,-0.35776347,-0.35763606,-0.3574954,-0.3572176,-0.35718858,-0.356898,-0.35694668,-0.35623056
-0.36580878,-0.3669739,-0.36773425,-0.36791602,-0.36780727,-0.36635232,-0.3663671,-0.36522633,-0.36389095,-0.3628186,-0.36247182,-0.3620233,-0.3615728,-0.36129442,-0.36066687,-0.35983193,-0.35886168,-0.35859495,-0.358059,-0.3578813,-0.35739398,-0.35669312,-0.3565984,-0.3566857,-0.35700062,-0.3569935,-0.35721266,-0.3568793,-0.3565992,-0.35624805,-0.3558699,-0.35564455,-0.35582864,-0.3559872,-0.35636863,-0.35701632,-0.35756868,-0.3579223,-0.3580128,-0.35808402,-0.35803255,-0.35748523,-0.3570567,-0.35690033,-0.35680813,-0.35663855,-0.35673437,-0.3566367,-0.35652876,-0.35573477
-0.36487222,-0.36592492,-0.36669993,-0.36702207,-0.36588657,-0.3662473,-0.365322,-0.3643077,-0.36300105,-0.36196676,-0.3616589,-0.36128923,-0.36087668,-0.3605966,-0.35996032,-0.35910198,-0.35809755,-0.3577497,-0.35713398,-0.3568982,-0.356429,-0.35576755,-0.35572547,-0.35586196,-0.35619813,-0.3562044,-0.35643142,-0.3561834,-0.35592836,-0.35559812,-0.3552283,-0.3550231,-0.35518023,-0.35529858,-0.35561687,-0.3561892,-0.3566637,-0.356952,-0.35701868,-0.35711956,-0.35735404,-0.3568461,-0.3564325,-0.35625327,-0.35611993,-0.35590768,-0.35606027,-0.35568768,-0.35547006,-0.35454583
-0.36773965,-0.3686935,-0.36915582,-0.3680034,-0.36844343,-0.36758494,-0.36656278,-0.3654077,-0.3639831,-0.36290932,-0.3625139,-0.36204264,-0.36151263,-0.3611235,-0.36037052,-0.35944194,-0.35850286,-0.3581832,-0.35765284,-0.3575042,-0.35707933,-0.35640353,-0.35632265,-0.35641393,-0.35670337,-0.35665917,-0.35686877,-0.35658288,-0.3563246,-0.35600725,-0.35568696,-0.35549644,-0.35563445,-0.35569924,-0.35595667,-0.35646486,-0.35688725,-0.35715836,-0.35725144,-0.3574087,-0.35762286,-0.35723472,-0.35691667,-0.35677174,-0.35658497,-0.35635948,-0.35610557,-0.3555133,-0.3552245,-0.35445464
-0.36865434,-0.36950666,-0.36871022,-0.3691904,-0.36851704,-0.36765474,-0.36661404,-0.36547846,-0.36405736,-0.36292398,-0.36254016,-0.36208516,-0.36156017,-0.36115247,-0.3603847,-0.35949573,-0.35850418,-0.3582173,-0.3576709,-0.35750425,-0.35706788,-0.35640427,-0.35635784,-0.3564849,-0.3567877,-0.3567949,-0.35702083,-0.35676557,-0.35656023,-0.35633764,-0.35608527,-0.3559643,-0.3561867,-0.35633415,-0.3566721,-0.35724208,-0.35770017,-0.3579908,-0.3579954,-0.35794243,-0.35800758,-0.35761452,-0.35731256,-0.3572088,-0.35717157,-0.35672224,-0.35636157,-0.35570556,-0.35530704,-0.35453805
-0.3684646,-0.36831385,-0.3694362,-0.3689836,-0.36833978,-0.367463,-0.3664199,-0.36536342,-0.3639968,-0.36292803,-0.36257336,-0.36208558,-0.3615306,-0.36112726,-0.3604244,-0.35955203,-0.35861582,-0.3583508,-0.3577789,-0.357598,-0.3571753,-0.3565458,-0.35654655,-0.3566662,-0.3570634,-0.35714108,-0.3574521,-0.35730055,-0.3572359,-0.3571217,-0.35697618,-0.35695738,-0.35727602,-0.35748887,-0.35786062,-0.35828128,-0.3586095,-0.35877094,-0.35868418,-0.35859227,-0.35861343,-0.3581882,-0.35788143,-0.35790387,-0.35764807,-0.35712507,-0.3567576,-0.35602278,-0.3556577,-0.35477936
-0.3680333,-0.36957824,-0.36954868,-0.36908308,-0.36839658,-0.3674726,-0.36640733,-0.3654135,-0.36406302,-0.36300898,-0.3626538,-0.36214343,-0.361565,-0.3611921,-0.36041236,-0.3594864,-0.3585881,-0.35832208,-0.35775137,-0.35758108,-0.35716802,-0.35654604,-0.35649878,-0.3566864,-0.35709095,-0.3571854,-0.35752296,-0.35744488,-0.35743183,-0.3573718,-0.35727733,-0.35730425,-0.3576516,-0.35779893,-0.35799986,-0.35841262,-0.35873306,-0.35889405,-0.35881037,-0.35873497,-0.3587858,-0.35839897,-0.35822386,-0.3579988,-0.35761556,-0.35705784,-0.35660863,-0.35595095,-0.35557556,-0.35467744
-0.3690756,-0.3694052,-0.36933476,-0.36887068,-0.36820003,-0.36728334,-0.36624423,-0.36526704,-0.3639188,-0.36286014,-0.36248738,-0.36197174,-0.36143675,-0.3610258,-0.36023182,-0.35927492,-0.3583309,-0.35805705,-0.35749024,-0.3573322,-0.356936,-0.35628647,-0.35631716,-0.35650092,-0.35689414,-0.35698462,-0.35736394,-0.35730308,-0.35730118,-0.3572382,-0.35713226,-0.3571275,-0.35742956,-0.35754693,-0.3577307,-0.35811388,-0.35840857,-0.3585567,-0.35848904,-0.3584595,-0.35856587,-0.35832453,-0.35790306,-0.3575281,-0.35706174,-0.3563904,-0.35599822,-0.35534838,-0.35500127,-0.3542608
-0.3686319,-0.36914727,-0.36925396,-0.3689152,-0.36826006,-0.36735088,-0.36632326,-0.3653233,-0.36399913,-0.3629484,-0.36257404,-0.3621009,-0.36155125,-0.36111718,-0.36029392,-0.35936573,-0.3585453,-0.3583333,-0.3578412,-0.3577608,-0.35739437,-0.35684335,-0.3568863,-0.3570732,-0.35747796,-0.35764214,-0.3580868,-0.35809994,-0.3581732,-0.35817638,-0.35811865,-0.35809207,-0.3582081,-0.3582375,-0.35834563,-0.35864532,-0.35889453,-0.3590389,-0.3590023,-0.35902986,-0.35928488,-0.35881853,-0.3582965,-0.35788047,-0.35731584,-0.35668147,-0.3562002,-0.35548687,-0.35512626,-0.3543787
-0.3705194,-0.37097946,-0.37085253,-0.37027124,-0.36947024,-0.36841944,-0.36724198,-0.36611682,-0.36481884,-0.3638147,-0.36353633,-0.36304665,-0.36241937,-0.3619755,-0.36116546,-0.36035404,-0.35979044,-0.35987425,-0.35970026,-0.35984498,-0.35971022,-0.3592645,-0.35923392,-0.35913765,-0.3594311,-0.35954517,-0.35991603,-0.35994437,-0.36012727,-0.3602789,-0.3603393,-0.36032063,-0.36041644,-0.360309,-0.3602295,-0.3603087,-0.36042565,-0.36053866,-0.36054817,-0.360808,-0.36097682,-0.36057267,-0.3601802,-0.35971949,-0.3591161,-0.35827237,-0.35746765,-0.35651702,-0.35595548,-0.35513788
